x,y,z,r,g,b,
0.220995,0.579719,-0.949555,209,254,227,
0.249648,0.439962,-0.801945,199,247,221,
0.155424,0.419085,-0.788228,187,242,208,
-0.0442565,0.418376,-0.778464,212,251,194,
0.297515,-0.0402283,-0.88173,209,254,226,
0.471774,0.609643,-1.30429,178,244,220,
0.020471,0.368224,-0.778464,233,254,218,
0.0579503,0.357852,-0.778464,245,254,232,
-0.0432495,0.353548,-0.778464,175,212,190,
0.137728,0.345225,-0.789128,197,254,219,
0.141417,0.333898,-0.792294,183,240,207,
0.109616,0.330366,-0.787331,187,235,190,
0.175083,0.326865,-0.792748,200,255,210,
0.0783997,0.312004,-0.806153,177,233,195,
-0.127234,0.284125,-0.820019,192,248,185,
-0.0999684,0.274312,-0.839437,238,254,227,
0.098235,0.248336,-0.850278,215,254,214,
0.268531,0.183906,-0.848712,165,253,240,
0.315743,0.169454,-0.829366,192,254,238,
0.0137274,0.421021,-0.778464,214,247,198,
0.199948,0.0836801,-0.895435,170,229,211,
0.223571,0.0746483,-0.889101,126,176,153,
0.231456,-0.0187357,-0.88682,177,235,196,
0.206193,-0.0234275,-0.902449,175,246,210,
0.245271,-0.0900587,-0.872273,203,254,221,
0.251759,-0.113761,-0.881168,209,254,218,
0.230706,-0.13842,-0.879486,175,218,184,
-0.446046,-0.379672,-1.67379,147,239,209,
0.192185,-0.248033,-0.942435,164,252,220,
0.184654,-0.261598,-0.960773,171,255,242,
0.183933,-0.255285,-0.861403,108,165,138,
0.262677,-0.421386,-0.825404,207,254,211,
0.263204,-0.430835,-0.828868,208,255,213,
0.0170236,0.369754,-0.778464,224,255,217,
0.016423,0.366183,-0.778464,224,253,212,
-0.113387,1.24188,-2.0452,195,241,203,
0.250028,0.458787,-0.807566,159,216,211,
0.249964,0.44091,-0.804745,199,247,219,
-0.0394896,0.429204,-0.778464,206,243,197,
-0.0667703,0.422923,-0.778464,132,172,131,
-0.051013,0.422467,-0.778464,139,178,133,
0.155658,0.419963,-0.789579,182,240,206,
-0.0437943,0.418389,-0.778464,213,252,194,
0.0411162,0.409871,-0.778464,201,241,196,
-0.041872,0.400154,-0.778464,192,242,201,
-0.116599,0.400587,-0.778464,182,233,186,
0.00674939,0.3963,-0.778464,206,251,206,
0.0230382,0.381144,-0.778464,215,255,223,
0.224246,-0.0653587,-0.875587,199,245,208,
-0.00377522,0.377759,-0.778464,199,253,203,
0.147501,0.375907,-0.786435,179,236,201,
-0.0227713,0.375596,-0.778464,195,247,208,
0.471153,0.609716,-1.30429,178,244,220,
0.018386,0.367938,-0.778464,245,255,222,
0.0256123,0.364053,-0.778464,133,185,146,
-0.0219911,0.363735,-0.778464,112,159,134,
0.056717,0.358192,-0.778464,241,255,229,
-0.00659209,0.353787,-0.778464,204,252,204,
-0.0434491,0.353448,-0.778464,174,211,189,
0.0383655,0.350154,-0.778464,211,251,200,
0.02043,0.349351,-0.778464,205,255,214,
-0.000150198,0.349129,-0.778464,150,196,150,
0.0285793,0.347675,-0.778464,129,175,138,
0.137587,0.345226,-0.789128,197,254,219,
0.0960256,0.341097,-0.788228,186,246,203,
-0.0827131,0.337736,-0.778464,182,231,183,
0.111887,0.334468,-0.785541,122,168,130,
0.141273,0.334096,-0.792294,183,240,207,
-0.177653,0.33405,-0.778464,183,232,184,
0.0154679,0.332387,-0.785988,121,173,134,
0.109482,0.330121,-0.787331,187,235,190,
0.00948527,0.330966,-0.785541,207,254,212,
0.0387924,0.330722,-0.786882,216,251,204,
0.0461747,0.329148,-0.786435,155,192,151,
0.174845,0.327529,-0.792294,200,255,213,
-0.0917299,0.27886,-0.84148,137,188,135,
0.0879221,0.321717,-0.793203,192,244,205,
-0.009494,0.318083,-0.786882,181,235,185,
-0.0919714,0.316574,-0.778464,166,225,181,
0.29699,0.308457,-0.778464,185,245,227,
0.103467,0.319799,-0.800551,195,243,195,
0.239873,0.461285,-0.805214,159,216,197,
-0.0448912,0.297566,-0.800088,208,253,194,
0.29827,0.299092,-0.778464,191,246,226,
0.0170481,0.304259,-0.791387,215,254,199,
0.00951782,0.302985,-0.79184,129,172,130,
0.2276,0.106878,-0.897179,134,180,153,
-0.00933375,0.301251,-0.815665,124,175,126,
0.061161,0.284615,-0.807566,156,195,148,
-0.0410744,0.289537,-0.817111,193,253,203,
0.0843615,0.287241,-0.822948,142,189,147,
0.0868437,0.272129,-0.84148,109,164,132,
-0.101208,0.274373,-0.838927,240,255,226,
0.102736,0.26513,-0.852901,205,250,223,
0.0870275,0.260312,-0.848712,188,246,203,
0.106139,0.258882,-0.85554,129,184,152,
0.0914096,0.251445,-0.848192,209,253,206,
0.0983151,0.249065,-0.850278,219,253,215,
0.317418,0.177935,-0.82442,195,244,228,
0.268884,0.183369,-0.848712,168,254,242,
0.320794,0.171364,-0.824912,138,191,174,
0.315702,0.169287,-0.829366,192,254,238,
0.297494,0.167956,-0.829366,210,255,227,
-0.302681,0.316082,-1.88102,123,221,199,
0.326258,-0.190896,-0.900686,167,235,204,
0.300947,0.0978463,-0.935421,186,254,238,
0.211257,0.130765,-0.898929,155,222,200,
0.326029,0.112695,-0.948904,158,230,216,
0.300974,0.0978834,-0.935421,186,254,238,
0.237993,0.0913663,-0.894856,143,193,167,
0.199846,0.0830813,-0.893122,172,231,212,
0.214856,0.0800862,-0.89082,173,231,204,
0.223849,0.0752995,-0.889101,120,173,154,
0.320673,0.0588064,-0.932896,148,222,207,
0.202552,0.0536804,-0.88342,121,178,166,
0.187201,0.0524656,-0.882856,107,164,152,
0.195134,0.0497262,-0.879486,228,254,249,
0.237479,0.0484936,-0.881168,163,209,183,
0.177331,0.0275143,-0.864636,184,254,213,
0.19606,0.0248072,-0.864636,240,254,249,
0.235479,0.019569,-0.861403,212,250,221,
0.260013,0.0190296,-0.865177,171,231,215,
0.31026,0.0114749,-0.88853,209,255,240,
0.309373,0.00410679,-0.892545,138,197,187,
0.315509,-0.00454539,-0.896597,220,255,242,
0.215969,-0.00467413,-0.873375,179,238,208,
0.289157,-0.00931785,-0.863555,165,220,187,
0.331594,-0.0205466,-0.894856,155,227,215,
0.273381,-0.0202302,-0.867348,174,229,199,
0.206407,-0.0233479,-0.901861,175,244,209,
0.295186,-0.0456945,-0.896016,126,182,155,
0.221483,-0.0455745,-0.87448,189,236,200,
0.328669,-0.064308,-0.901861,158,232,216,
0.226176,-0.0692387,-0.879486,194,240,204,
0.283766,-0.0862826,-0.909574,189,245,211,
0.217379,-0.0846307,-0.889673,182,236,198,
0.200486,-0.107048,-0.882293,172,224,189,
0.34243,-0.142174,-0.91925,139,214,204,
0.231194,-0.138989,-0.879486,178,221,187,
0.241504,-0.143694,-0.872273,121,168,143,
0.179016,0.0277195,-0.864636,195,254,220,
0.228584,-0.152239,-0.871174,202,235,194,
0.235714,-0.16638,-0.866804,103,155,140,
0.230752,-0.187837,-0.862478,113,168,146,
0.269715,-0.197401,-0.876142,144,190,159,
0.340232,-0.250866,-0.880607,183,240,194,
0.273932,-0.210749,-0.85554,199,248,214,
0.188948,-0.238303,-0.973628,95,180,152,
0.193167,-0.250229,-0.952827,168,255,230,
0.184378,-0.261151,-0.961441,174,254,246,
0.236109,-0.237255,-0.839947,173,219,190,
0.314996,-0.256417,-0.89082,158,212,186,
0.173838,-0.24881,-0.859796,242,252,235,
0.163955,-0.245479,-0.842506,143,212,171,
0.19253,-0.251164,-0.857663,234,255,240,
0.177253,-0.297187,-1.00769,161,252,218,
0.18435,-0.256223,-0.862478,107,164,141,
0.169986,-0.299668,-1.00622,101,188,153,
0.269742,-0.251747,-0.844049,131,173,147,
0.175865,-0.308817,-1.00696,163,254,229,
0.294804,-0.297957,-0.85185,190,218,189,
0.311762,-0.335721,-0.852375,127,171,150,
0.269265,-0.34115,-0.831861,200,254,222,
0.236441,-0.352991,-0.832361,198,252,204,
0.274172,-0.362741,-0.846633,198,244,215,
0.235747,-0.403007,-0.819048,156,208,171,
0.262512,-0.430112,-0.828372,206,253,209,
0.209048,-0.438765,-0.838419,161,217,177,
0.301041,-0.453979,-0.830362,94,138,120,
-0.0963091,0.443728,-0.778464,198,240,188,
0.251795,0.445421,-0.799163,109,159,155,
-0.0561849,0.434718,-0.778464,158,191,148,
-0.0822534,0.434432,-0.778464,139,181,140,
0.24908,0.4396,-0.805214,197,245,217,
-0.0403909,0.429816,-0.778464,209,244,195,
0.0297803,0.425568,-0.778464,132,165,130,
-0.0507959,0.42308,-0.778464,140,179,134,
-0.0683928,0.423448,-0.778464,129,175,140,
0.0845965,0.420118,-0.785095,184,239,207,
-0.0429194,0.418506,-0.778464,213,252,194,
0.0757703,0.418136,-0.783316,146,199,165,
-0.154802,0.418174,-0.778464,180,225,178,
-0.0212417,0.414319,-0.778464,198,239,193,
0.0418398,0.409603,-0.778464,203,242,197,
-0.102057,0.412783,-0.778464,209,248,192,
-0.113199,0.41138,-0.778464,123,161,124,
-0.0417432,0.400836,-0.778464,184,237,195,
-0.116357,0.400041,-0.778464,181,232,183,
0.109191,0.390505,-0.778464,178,233,187,
7.85494e-05,0.39226,-0.778464,138,184,147,
-0.0111685,0.392769,-0.778464,211,253,201,
-0.133696,0.395516,-0.778464,183,228,178,
0.0582363,0.388894,-0.778464,183,237,201,
0.147443,0.37503,-0.786882,182,239,204,
0.0256067,0.373649,-0.778464,152,196,162,
0.0357452,0.370745,-0.778464,206,249,201,
0.0181874,0.367705,-0.778464,247,252,222,
-0.0232694,0.36368,-0.778464,112,159,134,
0.107429,0.354627,-0.785988,130,182,145,
-0.00725671,0.3534,-0.778464,203,251,203,
0.0381303,0.348862,-0.778464,213,252,201,
0.0283181,0.348406,-0.782429,129,175,140,
0.0075865,0.347558,-0.778464,211,254,212,
-0.00126329,0.347167,-0.778464,152,200,152,
0.178247,-0.3115,-1.01658,161,253,228,
0.135106,0.345663,-0.79003,198,254,214,
0.0937183,0.339845,-0.787779,187,245,198,
-0.0819693,0.338119,-0.778464,184,233,185,
0.0167344,0.332041,-0.785988,126,178,139,
-0.165084,0.332724,-0.778464,192,241,188,
0.0722041,0.3326,-0.791387,188,242,203,
0.0540763,0.330972,-0.784649,209,246,193,
0.063762,0.328345,-0.786882,141,188,151,
0.174041,0.327513,-0.791387,199,255,213,
0.0381374,0.328413,-0.786882,215,249,199,
-0.106314,0.324201,-0.778464,117,172,138,
0.0790155,0.324775,-0.795485,125,178,148,
0.0884641,0.32102,-0.794114,191,243,204,
0.0675387,0.319648,-0.793203,197,240,194,
0.298783,0.30945,-0.778464,181,241,223,
-0.0393465,0.316562,-0.786882,138,185,150,
0.104478,0.317333,-0.800088,201,249,199,
-0.0292726,0.3148,-0.790934,185,236,189,
-0.00362359,0.312459,-0.791387,139,182,138,
-0.100215,0.306946,-0.778464,131,187,147,
0.298183,0.299097,-0.778464,191,246,226,
0.0168421,0.304979,-0.790482,218,254,200,
-0.119767,0.30253,-0.778464,127,178,135,
-0.0412688,0.304723,-0.79686,135,189,146,
0.00875932,0.302779,-0.795485,124,177,135,
-0.0117578,0.302087,-0.800088,167,221,171,
0.0238966,0.297612,-0.79457,123,169,132,
-0.0958438,0.296439,-0.786882,210,254,189,
-0.00615985,0.293732,-0.814704,185,234,180,
-0.0550234,0.289756,-0.807094,148,193,144,
0.0606896,0.284736,-0.808983,156,195,148,
-0.0428922,0.288654,-0.817111,198,254,200,
0.0441006,0.283588,-0.816629,131,172,137,
-0.062529,0.287394,-0.827876,202,252,193,
-0.0548853,0.28311,-0.829366,129,179,136,
0.0830603,0.27539,-0.82442,182,236,186,
-0.101424,0.275689,-0.838927,249,255,239,
0.086872,0.270754,-0.844049,113,167,140,
-0.0624795,0.271433,-0.842506,189,239,185,
0.170568,0.262329,-0.835379,161,224,183,
0.100123,0.264787,-0.85185,217,253,227,
-0.0885811,0.259648,-0.846633,189,241,190,
0.0978319,0.250919,-0.850278,225,253,216,
0.295572,0.188408,-0.778464,199,253,226,
0.286575,0.190762,-0.835379,104,162,152,
0.310776,0.180566,-0.833365,133,187,172,
0.278951,0.180792,-0.84148,167,253,233,
0.269511,0.181757,-0.848712,166,254,241,
0.297659,0.168347,-0.829366,212,255,230,
0.296178,0.147894,-0.83136,201,252,224,
0.211216,0.131605,-0.898345,152,220,198,
0.228141,0.118115,-0.900099,188,235,198,
0.252028,0.111105,-0.897179,210,253,216,
0.215193,0.111787,-0.898929,194,235,206,
0.325938,0.113482,-0.948253,155,229,214,
0.300379,0.0975284,-0.932896,186,254,238,
0.326699,0.096692,-0.946306,153,228,209,
0.238915,-0.467291,-0.828868,83,132,113,
0.261298,0.0837821,-0.907782,191,248,218,
0.21451,0.0779845,-0.889673,172,228,200,
0.22406,0.0765159,-0.889101,121,174,153,
0.224993,0.0662083,-0.881168,236,254,235,
0.321389,0.0587316,-0.934157,147,221,206,
0.203358,0.0552908,-0.88455,121,176,164,
0.186513,0.0540267,-0.88682,100,165,152,
0.256769,0.0514667,-0.889673,212,255,240,
0.194376,0.0481034,-0.875587,238,253,251,
-0.44596,-0.379698,-1.67379,147,239,209,
0.278249,0.0383363,-0.907187,182,243,219,
0.253679,0.0298384,-0.872273,108,171,162,
0.194253,0.0258779,-0.865718,246,254,250,
0.234585,0.0212041,-0.861403,223,255,225,
0.310114,0.0132358,-0.889101,210,253,239,
0.215762,-0.00356823,-0.872823,177,236,205,
0.314685,-0.00713248,-0.89082,218,252,237,
0.289433,-0.0089282,-0.863016,165,220,186,
0.331804,-0.0211489,-0.894277,153,225,211,
0.207464,-0.0229354,-0.902449,168,237,202,
0.257311,-0.0263974,-0.867348,132,188,163,
0.314012,-0.0411079,-0.891969,115,179,170,
0.250272,-0.0389094,-0.872823,119,174,152,
0.230123,-0.0426386,-0.876142,181,233,198,
0.223638,-0.0451748,-0.873375,188,235,197,
0.2863,-0.0506943,-0.89082,186,244,215,
0.209664,-0.0557221,-0.88342,164,217,183,
0.329656,-0.0645637,-0.903039,156,230,214,
0.192151,-0.0796444,-0.88455,157,214,178,
0.216583,-0.0849354,-0.889101,182,236,198,
0.279773,-0.086984,-0.898929,197,251,209,
0.246249,-0.0888326,-0.871174,199,250,217,
0.198094,-0.0923913,-0.883985,195,237,197,
0.215201,-0.111569,-0.880607,163,223,194,
0.252025,-0.114086,-0.881168,207,253,216,
0.271913,-0.118537,-0.88682,164,205,172,
0.287295,-0.118356,-0.887959,214,254,219,
0.285938,-0.131693,-0.86953,175,239,214,
0.342145,-0.142946,-0.91925,134,209,200,
0.231925,-0.140008,-0.879486,177,222,187,
0.241646,-0.143718,-0.872823,121,168,143,
0.257277,-0.149747,-0.872823,145,200,167,
0.227013,-0.15519,-0.86953,198,231,190,
0.234573,-0.167577,-0.866804,103,155,140,
0.257294,-0.170485,-0.863555,197,243,206,
0.283432,-0.181598,-0.895435,181,232,199,
0.325656,-0.190484,-0.897761,162,230,199,
0.290158,-0.192687,-0.88455,173,239,217,
0.23022,-0.187801,-0.862478,113,168,147,
0.204379,-0.216793,-0.989658,136,212,187,
0.236931,-0.191663,-0.85554,197,244,209,
0.270057,-0.198189,-0.877254,144,190,162,
0.274112,-0.20909,-0.85554,200,249,213,
0.194056,-0.25291,-0.968852,167,253,231,
0.176681,-0.264326,-0.945658,126,194,163,
0.188603,-0.250526,-0.887389,140,193,148,
0.283791,-0.243054,-0.857663,170,224,197,
0.212654,-0.248048,-0.870077,175,229,192,
0.192374,-0.248983,-0.859262,249,254,241,
0.168618,-0.298577,-1.00403,113,199,164,
0.270353,-0.252149,-0.844565,131,173,147,
0.185582,-0.258091,-0.863016,111,168,145,
0.173363,-0.25474,-0.854482,249,250,250,
0.237261,-0.254629,-0.843534,194,239,201,
0.216262,-0.26512,-0.870077,157,211,173,
0.172654,-0.307368,-0.998233,161,253,224,
0.283623,-0.280896,-0.864636,128,172,151,
0.300038,-0.287274,-0.85607,206,242,207,
0.308489,-0.330172,-0.838927,128,171,150,
0.243193,-0.339166,-0.831861,112,157,132,
0.25433,-0.34491,-0.828868,222,251,234,
0.238937,-0.354651,-0.83639,204,255,212,
0.298701,-0.377571,-0.843534,183,228,197,
0.235667,-0.400304,-0.815184,157,208,170,
0.307287,-0.411264,-0.817595,177,222,193,
0.260818,-0.424374,-0.823438,206,254,206,
0.209594,-0.440288,-0.838927,158,215,173,
0.277411,-0.433855,-0.823438,187,230,187,
0.301135,-0.454151,-0.830362,94,138,120,
0.287208,-0.46267,-0.837911,99,145,126,
0.264468,-0.465055,-0.809931,163,223,191,
0.300656,-0.513623,-0.828868,165,228,183,
-0.0366176,0.451318,-0.778464,115,147,114,
0.24815,0.458206,-0.806623,160,218,209,
0.0891993,0.259237,-0.848192,192,250,199,
0.288448,-0.462282,-0.836896,100,146,129,
0.273618,0.46398,-0.835884,164,216,201,
-0.0692319,0.434596,-0.778464,210,246,191,
-0.0821537,0.434177,-0.778464,139,181,140,
-0.041022,0.430288,-0.778464,211,245,196,
-0.13081,0.4294,-0.778464,211,244,183,
0.0286723,0.425231,-0.778464,129,162,127,
-0.0687964,0.423224,-0.778464,129,175,140,
0.00709988,0.419146,-0.778464,222,253,203,
-0.124705,0.418847,-0.778464,137,176,132,
-0.0213665,0.414284,-0.778464,198,239,193,
-0.102023,0.414478,-0.778464,212,251,195,
-0.114189,0.4113,-0.778464,121,159,122,
0.0404966,0.399004,-0.778464,133,179,148,
-0.0410798,0.401006,-0.778464,174,228,188,
-0.0757231,0.401796,-0.778464,186,235,183,
-0.0638348,0.398828,-0.778464,191,233,181,
0.110304,0.39457,-0.783316,173,228,182,
-0.0106857,0.393331,-0.778464,213,254,206,
-0.132206,0.394053,-0.778464,180,229,175,
0.0027547,0.390101,-0.778464,136,183,146,
0.363283,0.514947,-1.05217,162,219,188,
-0.0204005,0.385971,-0.778464,127,166,131,
-0.0193959,0.373652,-0.778464,203,254,204,
0.0359714,0.368651,-0.778464,204,246,198,
0.0452838,0.35739,-0.778464,144,201,170,
0.085189,0.355851,-0.784204,130,178,143,
0.105931,0.354935,-0.785988,131,183,146,
0.104736,0.316718,-0.800551,199,247,197,
0.122257,0.34642,-0.791387,134,185,154,
0.0944271,0.339257,-0.787779,184,242,193,
0.0540334,0.329961,-0.784649,213,248,194,
0.0978222,0.326195,-0.789128,132,185,153,
0.0180804,0.33086,-0.785095,129,176,139,
-0.0273342,0.325973,-0.778464,183,237,197,
-0.106246,0.325346,-0.778464,114,169,135,
0.00423856,0.325679,-0.785988,209,255,211,
-0.0526201,0.322198,-0.778464,124,172,142,
0.0782788,0.324676,-0.79686,131,183,152,
0.0678331,0.319501,-0.793658,196,239,193,
-0.0484753,0.312345,-0.785541,206,242,192,
-0.00357704,0.312124,-0.792294,138,181,137,
-0.0994083,0.307029,-0.778464,131,188,145,
0.016271,0.305459,-0.788228,219,254,200,
-0.120829,0.301707,-0.778464,126,179,137,
-0.039725,0.304696,-0.795485,136,191,148,
-0.0488521,0.297105,-0.793203,221,254,195,
0.0842918,0.298735,-0.808038,137,186,150,
0.0492634,0.288452,-0.801945,207,250,193,
-0.00565964,0.293626,-0.814704,184,233,179,
0.073863,0.291618,-0.81231,204,246,193,
0.02823,0.288778,-0.80851,190,224,173,
0.0128664,0.288366,-0.80851,120,169,135,
-0.0548159,0.290472,-0.810406,146,191,141,
-0.0433256,0.288296,-0.818078,194,250,196,
-0.128235,0.287491,-0.817111,188,245,178,
-0.0900477,0.282171,-0.820019,194,245,180,
-0.0542604,0.283296,-0.829366,129,179,136,
0.0829879,0.276217,-0.823929,182,236,186,
-0.0622758,0.273177,-0.84148,192,242,187,
0.0850232,0.269447,-0.841993,111,167,138,
0.0986298,0.264579,-0.849756,220,253,227,
-0.0858493,0.259808,-0.847152,191,243,186,
0.0962216,0.253596,-0.85185,221,254,217,
0.287882,0.191335,-0.833365,108,165,155,
0.270808,0.180635,-0.847672,167,255,240,
0.296084,0.147883,-0.83136,201,252,224,
0.228541,0.118872,-0.900099,189,238,201,
0.215168,0.11125,-0.898345,195,235,206,
0.253224,0.109443,-0.896597,206,253,219,
0.327075,0.0955091,-0.946954,155,231,212,
0.217592,0.0915748,-0.901273,104,159,147,
0.25987,0.0845504,-0.906592,196,253,222,
0.19887,0.0771131,-0.887959,165,226,196,
0.224218,0.0641804,-0.880607,241,250,237,
0.24839,0.0605275,-0.891394,218,254,226,
0.209487,0.0595499,-0.882856,137,185,159,
0.240562,0.0486865,-0.88173,161,206,182,
0.193475,0.045759,-0.875587,234,253,249,
0.279193,0.039027,-0.909574,179,241,214,
0.240595,0.03591,-0.872823,229,253,229,
0.314812,0.0357291,-0.91925,106,176,171,
0.302033,0.0318208,-0.915598,207,254,231,
0.256538,0.0299632,-0.872273,113,174,168,
0.19265,0.0270887,-0.864636,248,254,250,
0.236267,0.0231492,-0.863555,221,252,222,
0.310211,0.0180316,-0.889101,198,249,228,
0.25451,0.00873855,-0.858728,120,172,159,
0.259378,-0.00210556,-0.85554,220,249,213,
0.314351,-0.00933635,-0.889101,219,254,238,
0.208479,-0.0227962,-0.901861,164,233,199,
0.307527,-0.0307928,-0.889101,215,253,226,
0.297877,-0.036852,-0.876698,224,255,227,
0.249643,-0.0395744,-0.872823,120,175,153,
0.314527,-0.0419346,-0.893122,113,177,168,
0.226851,-0.0440642,-0.873927,177,226,192,
0.215868,-0.0850227,-0.88853,183,235,198,
0.277787,-0.0875983,-0.892545,203,253,212,
0.197087,-0.0919025,-0.882856,193,236,193,
0.231402,-0.0964176,-0.887959,100,154,138,
0.215611,-0.111116,-0.881168,166,224,194,
0.287519,-0.116941,-0.891394,212,251,216,
0.25197,-0.114207,-0.881168,207,253,216,
0.216962,-0.125272,-0.889101,85,141,126,
0.243355,-0.13622,-0.876142,113,168,143,
0.285635,-0.131495,-0.870077,179,237,208,
0.278121,-0.145736,-0.885117,108,168,157,
0.292637,0.024006,-0.89082,212,252,227,
0.227071,-0.156087,-0.867892,196,229,188,
0.272239,-0.165068,-0.872273,112,171,160,
0.233374,-0.169176,-0.867348,105,155,142,
0.182739,-0.224922,-0.979145,160,252,224,
0.276565,-0.208733,-0.864095,194,248,212,
0.192019,-0.237036,-0.970894,100,166,146,
0.224788,-0.223038,-0.849234,94,141,134,
0.189041,-0.253187,-0.96211,164,255,235,
0.235279,-0.226823,-0.840457,188,225,185,
0.283344,-0.244278,-0.85607,174,226,199,
0.213311,-0.248246,-0.873375,173,227,189,
0.173454,-0.252758,-0.85607,252,252,245,
0.294841,-0.249442,-0.858195,102,157,145,
0.186416,-0.259502,-0.860867,113,170,147,
0.236625,-0.255393,-0.84302,195,239,200,
0.166542,-0.263261,-0.848712,108,169,149,
0.283803,-0.281055,-0.864636,128,172,151,
0.243282,-0.281694,-0.844565,195,229,184,
0.238671,-0.294215,-0.850278,97,147,132,
0.245987,-0.313251,-0.819048,170,210,172,
0.244819,-0.338593,-0.835884,106,151,130,
0.254646,-0.344693,-0.830362,217,253,230,
0.240244,-0.355049,-0.837403,210,254,217,
0.284704,-0.370178,-0.852901,115,162,140,
0.250266,-0.38157,-0.860331,111,152,132,
0.214091,-0.384058,-0.844049,130,183,153,
0.234132,-0.386112,-0.820993,167,206,161,
0.190779,-0.422545,-0.876698,117,182,151,
0.260895,-0.424297,-0.823438,206,254,206,
0.277465,-0.432243,-0.822458,186,229,186,
0.210188,-0.441552,-0.839437,150,207,164,
0.242725,-0.45422,-0.835884,139,192,162,
0.287018,-0.462364,-0.836896,99,145,128,
0.265352,-0.452312,-0.814704,166,219,185,
-0.0701891,0.400349,-0.778464,185,229,175,
0.0464029,0.395001,-0.778464,135,185,154,
-0.017114,0.372834,-0.778464,207,254,206,
-0.0339881,0.371844,-0.778464,100,140,125,
0.0967606,0.363168,-0.778464,192,236,186,
0.00965217,0.34463,-0.778464,214,255,211,
0.099481,0.328593,-0.79184,129,182,151,
0.0219857,0.32859,-0.787331,130,176,139,
0.0150411,0.332532,-0.785988,120,172,133,
0.00355703,0.323834,-0.789579,208,251,203,
-0.116187,0.315727,-0.778464,173,227,179,
0.0134446,0.311076,-0.79003,220,255,198,
0.165483,0.303008,-0.799625,174,222,180,
0.0134616,0.298317,-0.808983,126,175,137,
-0.0854933,0.293578,-0.79824,119,177,138,
0.0719576,0.291049,-0.811833,208,249,195,
-0.0500528,0.280056,-0.83136,129,182,140,
-0.099469,0.278172,-0.830861,224,253,210,
-0.0653047,0.274908,-0.823438,196,240,175,
-0.0830277,0.27523,-0.840457,155,204,154,
0.172281,0.263884,-0.831861,154,214,174,
0.0807163,0.267334,-0.83639,122,181,149,
0.0954955,0.258785,-0.85185,215,254,214,
-0.085364,0.261819,-0.852375,191,242,185,
0.190282,0.160583,-0.916204,134,202,167,
0.251784,0.106915,-0.894856,212,254,216,
0.216164,0.093543,-0.903039,103,154,144,
0.200076,0.0751253,-0.885684,171,231,202,
0.27578,0.073343,-0.931639,108,172,162,
0.185565,0.0605167,-0.88455,112,173,165,
0.207918,0.0591467,-0.883985,129,182,158,
0.237764,0.0288096,-0.871174,233,255,230,
0.258602,0.0268189,-0.870625,120,177,167,
0.214046,0.021427,-0.872823,150,204,169,
0.251027,0.0124056,-0.860331,106,163,157,
0.194068,-0.00119998,-0.900686,97,156,143,
0.228951,-0.0434466,-0.875587,177,229,194,
0.252403,-0.056056,-0.87448,205,250,221,
0.277902,-0.0690091,-0.895435,125,183,166,
0.242146,-0.0748475,-0.882856,123,180,157,
0.19911,-0.0901374,-0.88342,189,232,188,
0.279918,-0.0913844,-0.893122,193,241,210,
0.229016,-0.0970524,-0.887959,102,156,140,
0.218422,-0.131219,-0.890246,86,141,131,
0.243589,-0.135087,-0.877254,113,167,144,
0.274591,-0.161925,-0.870077,113,176,164,
0.233302,-0.173146,-0.871723,104,157,146,
0.27754,-0.185579,-0.881168,182,233,199,
0.315711,-0.4771,-2.09478,146,255,220,
0.188729,-0.255992,-0.978452,170,253,245,
0.22265,-0.224958,-0.850278,87,136,128,
0.238354,-0.225251,-0.837911,204,237,197,
0.244522,-0.276505,-0.84148,202,235,192,
0.264534,-0.2854,-0.838927,188,235,202,
0.240327,-0.298688,-0.849756,98,143,130,
0.25028,-0.312898,-0.821481,180,218,179,
0.245353,-0.339928,-0.844565,101,146,125,
0.245063,-0.357471,-0.84148,208,254,219,
0.214648,-0.387622,-0.846633,122,175,143,
0.241233,-0.389173,-0.808983,183,216,169,
0.234687,-0.416158,-0.820019,107,158,136,
0.147555,-0.459969,-0.88853,132,197,149,
0.207289,-0.445146,-0.835379,142,198,160,
0.240163,-0.446565,-0.83136,141,194,164,
0.186309,-0.499312,-0.900099,126,186,156,
0.23831,-0.468262,-0.832361,82,131,115,
0.263898,-0.00204694,-0.858195,230,255,220,
0.235266,-0.256716,-0.83136,188,227,184,
0.132234,-0.460893,-0.88173,127,194,154,
-0.035324,0.371434,-0.778464,97,138,118,
0.050336,0.323688,-0.79003,220,247,187,
-0.0547183,0.306021,-0.793203,216,243,182,
0.16682,0.301341,-0.800088,175,224,181,
-0.0300054,0.302314,-0.79778,128,184,148,
-0.0839193,0.292253,-0.79778,121,179,142,
0.18618,0.0622912,-0.887389,112,173,165,
0.225172,0.0616828,-0.880046,244,253,241,
0.188872,0.0347575,-0.864095,246,254,248,
0.234673,0.0294717,-0.870625,231,254,222,
0.238656,0.00147633,-0.866804,100,159,149,
0.193729,0.00151162,-0.903039,99,158,145,
0.202001,-0.090328,-0.88455,184,226,186,
0.209217,-0.109672,-0.880046,144,197,167,
0.237199,-0.125605,-0.88342,103,162,149,
0.230968,-0.151397,-0.872823,199,232,194,
0.191481,-0.189762,-0.953484,101,163,144,
0.306578,-0.488687,-2.10114,165,254,241,
0.203464,-0.235696,-0.976379,91,148,139,
0.158058,-0.566869,-2.04217,139,251,223,
0.203112,-0.245705,-0.864095,146,198,159,
0.229127,-0.245892,-0.847152,101,153,140,
0.227431,-0.374606,-0.863555,90,140,125,
0.143891,-0.462478,-0.887389,129,194,146,
0.297889,-0.517071,-2.10755,173,253,251,
